ply
format ascii 1.0
element vertex 1626
property float x
property float y
property float z
end_header
0.202151 0.133825 -3.198344 
0.201898 0.122277 -3.197385 
0.201901 0.104697 -3.198749 
0.201802 0.017328 -3.201017 
0.202015 0.233763 -3.195617 
0.201726 -0.348152 -3.212478 
0.201712 0.073433 -3.199754 
0.201712 0.073433 -3.199754 
0.201499 0.006510 -3.199232 
0.201499 0.006510 -3.199232 
0.201670 0.082617 -3.199449 
0.201715 0.117313 -3.199021 
0.201609 0.066767 -3.199926 
0.201660 0.107946 -3.199136 
0.201631 0.112564 -3.199249 
0.201474 0.057776 -3.200044 
0.201514 0.094570 -3.199712 
0.196394 -0.461381 -3.134347 
0.201407 0.114318 -3.199016 
0.201268 0.218355 -3.196284 
0.200881 0.004800 -3.200160 
0.201108 0.162480 -3.197340 
0.200919 0.105064 -3.199868 
0.200852 0.180842 -3.195490 
0.200830 -0.009492 -3.203651 
0.190708 -0.586267 -3.054578 
0.200651 0.078454 -3.200483 
0.200710 0.110188 -3.200054 
0.200738 0.129172 -3.200068 
0.200616 0.107882 -3.200190 
0.200616 0.107882 -3.200190 
0.200571 0.139570 -3.199641 
0.199991 0.127930 -3.200579 
0.189828 -0.588084 -3.054050 
0.199923 0.145195 -3.200137 
0.199928 0.146836 -3.200630 
0.199787 0.131618 -3.200978 
0.199666 0.097155 -3.201214 
0.199529 0.047992 -3.201692 
0.199643 0.111660 -3.200861 
0.199643 0.111660 -3.200861 
0.199570 0.079528 -3.201741 
0.195750 -0.439959 -3.155009 
0.199539 0.108715 -3.200922 
0.199563 0.122349 -3.200901 
0.199640 0.237936 -3.197284 
0.199577 0.229347 -3.197840 
0.199399 0.103345 -3.201228 
0.199334 0.071199 -3.202022 
0.199005 0.018401 -3.201811 
0.199322 0.221976 -3.198024 
0.199077 -0.024161 -3.205855 
0.199085 0.164058 -3.198827 
0.198900 0.106180 -3.201709 
0.198928 0.135314 -3.201513 
0.198928 0.135314 -3.201513 
0.198928 0.135314 -3.201513 
0.198871 0.137531 -3.201557 
0.198871 0.137531 -3.201557 
0.198832 0.132204 -3.201479 
0.198761 0.098041 -3.201964 
0.198814 0.129554 -3.201528 
0.198679 0.090499 -3.201959 
0.198679 0.090499 -3.201959 
0.198403 0.028172 -3.202436 
0.198447 0.113093 -3.202234 
0.198139 0.008580 -3.202487 
0.199406 0.301292 -3.208152 
0.198274 0.068055 -3.202998 
0.197847 0.085854 -3.203035 
0.190120 -0.542003 -3.094745 
0.197731 0.168068 -3.200077 
0.197468 0.110682 -3.202799 
0.193670 -0.440003 -3.157123 
0.197276 0.176664 -3.198188 
0.197056 0.011934 -3.202567 
0.187210 -0.587244 -3.055702 
0.197223 0.161067 -3.200531 
0.197223 0.161067 -3.200531 
0.197258 0.141964 -3.202883 
0.197141 0.166731 -3.200208 
0.197118 0.079140 -3.204251 
0.196827 0.004677 -3.204249 
0.196827 0.004677 -3.204249 
0.196955 0.108404 -3.203627 
0.196955 0.108404 -3.203627 
0.196929 0.114865 -3.203355 
0.197038 0.148946 -3.203493 
0.196894 0.124411 -3.203494 
0.196864 0.105724 -3.204122 
0.196396 0.030518 -3.204893 
0.196521 0.127378 -3.203569 
0.196552 0.153585 -3.203227 
0.196073 0.041763 -3.204265 
0.195848 0.045084 -3.204465 
0.195715 0.048509 -3.204175 
0.192589 -0.394153 -3.167463 
0.192589 -0.394153 -3.167463 
0.195581 0.043290 -3.204682 
0.195699 0.171403 -3.201921 
0.195365 0.006561 -3.205652 
0.195344 0.046681 -3.204683 
0.195360 0.067893 -3.204396 
0.195226 0.006592 -3.205234 
0.195300 0.109316 -3.204340 
0.195300 0.109316 -3.204340 
0.195410 0.151213 -3.204477 
0.195247 0.128414 -3.204632 
0.195168 0.100329 -3.205058 
0.194941 0.072231 -3.204736 
0.195037 0.138634 -3.204449 
0.194913 0.146279 -3.204911 
0.194913 0.146279 -3.204911 
0.193930 -0.171758 -3.201911 
0.194553 0.004847 -3.206274 
0.194801 0.136507 -3.205299 
0.194737 0.157530 -3.204910 
0.194489 0.057609 -3.206088 
0.194500 -0.008103 -3.209308 
0.194643 0.235975 -3.201661 
0.194643 0.235975 -3.201661 
0.194592 0.154800 -3.205227 
0.194582 0.159355 -3.204851 
0.194357 0.055598 -3.205984 
0.194357 0.055598 -3.205984 
0.194438 0.104851 -3.205827 
0.194438 0.104851 -3.205827 
0.194220 0.060567 -3.206518 
0.194366 0.254508 -3.202113 
0.194101 0.093765 -3.206260 
0.193752 0.062091 -3.206555 
0.193564 0.006391 -3.206938 
0.193851 0.146558 -3.205976 
0.190564 -0.393965 -3.169220 
0.193447 0.009989 -3.206070 
0.193762 0.176402 -3.203663 
0.193443 0.066160 -3.206402 
0.193533 0.165243 -3.204057 
0.193256 0.004551 -3.207745 
0.193380 0.135566 -3.206121 
0.193261 0.105432 -3.206764 
0.190753 -0.383415 -3.180714 
0.188337 -0.459114 -3.141571 
0.193250 0.128483 -3.206551 
0.193250 0.128483 -3.206551 
0.193161 0.120422 -3.206468 
0.193186 0.125517 -3.206712 
0.193228 0.156595 -3.206893 
0.193257 0.226565 -3.203926 
0.193217 0.233798 -3.203311 
0.192335 -0.355224 -3.209984 
0.192884 0.078402 -3.206491 
0.192944 0.111373 -3.207223 
0.192767 0.067660 -3.207085 
0.192744 0.069565 -3.206906 
0.189200 -0.400890 -3.162100 
0.192842 0.122930 -3.206638 
0.192784 0.107893 -3.206955 
0.192584 0.107135 -3.207433 
0.192584 0.107135 -3.207433 
0.192442 -0.017625 -3.211215 
0.192370 -0.006173 -3.210735 
0.192366 0.072826 -3.207423 
0.192397 0.139035 -3.207333 
0.192434 0.165239 -3.206753 
0.192434 0.165239 -3.206753 
0.192299 0.165783 -3.206187 
0.188418 -0.438697 -3.163060 
0.192043 0.129416 -3.207476 
0.191860 0.070703 -3.208042 
0.191741 -0.007999 -3.211582 
0.191634 0.074330 -3.208108 
0.191812 0.215534 -3.205543 
0.191644 0.179993 -3.205904 
0.191644 0.179993 -3.205904 
0.187677 -0.441680 -3.159219 
0.191639 0.163758 -3.207477 
0.191508 0.037287 -3.211302 
0.191518 0.110616 -3.208554 
0.191420 -0.009403 -3.212291 
0.191603 0.161348 -3.207799 
0.191469 0.105021 -3.208993 
0.191153 0.078068 -3.208231 
0.191477 0.253413 -3.204832 
0.191247 0.140034 -3.208506 
0.191216 0.135090 -3.208531 
0.191216 0.135090 -3.208531 
0.191174 0.125738 -3.208372 
0.191137 0.123234 -3.208660 
0.191137 0.123234 -3.208660 
0.190955 0.114789 -3.208121 
0.190970 0.116984 -3.208858 
0.182983 -0.543293 -3.097439 
0.190188 0.009771 -3.208516 
0.190190 0.011634 -3.208632 
0.190678 0.240123 -3.206868 
0.190337 0.147633 -3.209035 
0.190295 0.131814 -3.209562 
0.189986 0.004507 -3.210533 
0.190039 -0.021903 -3.213593 
0.190001 0.126836 -3.210107 
0.190000 0.164039 -3.209069 
0.189726 0.002375 -3.212375 
0.189825 0.118483 -3.210068 
0.189878 0.168031 -3.208767 
0.189878 0.168031 -3.208767 
0.189878 0.168031 -3.208767 
0.189335 0.008433 -3.209755 
0.189528 -0.025002 -3.214606 
0.189598 0.122325 -3.210151 
0.189587 0.177956 -3.207264 
0.189587 0.177956 -3.207264 
0.189558 0.184088 -3.207150 
0.189558 0.184088 -3.207150 
0.189553 0.130240 -3.209991 
0.181755 -0.541720 -3.100401 
0.189231 0.172783 -3.207685 
0.189231 0.172783 -3.207685 
0.189130 0.146251 -3.209970 
0.188803 0.006367 -3.210882 
0.188999 0.111621 -3.211071 
0.188970 0.222768 -3.207607 
0.188740 0.132090 -3.210483 
0.188715 0.115462 -3.211067 
0.188759 0.149073 -3.210264 
0.188373 0.091411 -3.210171 
0.188479 0.117996 -3.211206 
0.188434 0.155937 -3.210813 
0.188358 0.137714 -3.210538 
0.187981 0.008301 -3.211257 
0.188175 0.181419 -3.208422 
0.188139 0.184731 -3.208221 
0.188073 0.128093 -3.211010 
0.187870 0.120850 -3.211289 
0.187757 0.058960 -3.213550 
0.182599 -0.465839 -3.140520 
0.182583 -0.465816 -3.140474 
0.182577 -0.463942 -3.141303 
0.187786 0.168196 -3.211223 
0.187587 0.186793 -3.209101 
0.187587 0.186793 -3.209101 
0.187259 -0.007974 -3.215215 
0.187257 0.118558 -3.211986 
0.187231 0.138506 -3.211679 
0.187201 0.160403 -3.211537 
0.187053 0.141712 -3.212228 
0.186854 0.093408 -3.212222 
0.186898 0.111289 -3.212195 
0.186650 0.006342 -3.212953 
0.186650 0.006342 -3.212953 
0.186105 -0.233267 -3.214720 
0.186509 -0.009963 -3.216649 
0.186211 0.004348 -3.213715 
0.186394 0.116792 -3.212037 
0.186045 0.008027 -3.212691 
0.186276 0.132001 -3.212703 
0.186316 0.160759 -3.212756 
0.186316 0.160759 -3.212756 
0.186212 0.145149 -3.212626 
0.185942 -0.069975 -3.218719 
0.182810 -0.394028 -3.174212 
0.182810 -0.394028 -3.174212 
0.185967 0.120052 -3.213274 
0.185927 0.135096 -3.213171 
0.185957 0.154144 -3.213008 
0.185695 0.100737 -3.212931 
0.185437 0.002680 -3.214479 
0.185546 0.149547 -3.213028 
0.185546 0.149547 -3.213028 
0.185438 0.175431 -3.212848 
0.185438 0.175431 -3.212848 
0.185238 0.143884 -3.213629 
0.185031 0.157088 -3.213468 
0.185068 0.169202 -3.213850 
0.185050 0.172440 -3.213672 
0.184566 0.004190 -3.215322 
0.179685 -0.465110 -3.142889 
0.184692 0.101662 -3.214104 
0.184692 0.101662 -3.214104 
0.184288 0.005689 -3.215131 
0.184617 0.151707 -3.214080 
0.181455 -0.392878 -3.177392 
0.184352 -0.003271 -3.217987 
0.184408 0.160503 -3.213602 
0.184136 0.138090 -3.214599 
0.184093 0.144718 -3.214472 
0.184131 0.165213 -3.214392 
0.183970 0.131691 -3.214828 
0.183970 0.131691 -3.214828 
0.183687 -0.081936 -3.220072 
0.183832 0.059282 -3.217367 
0.183577 -0.086745 -3.221396 
0.183560 0.002882 -3.218813 
0.183649 0.168556 -3.214970 
0.183401 0.115003 -3.213965 
0.182425 -0.352989 -3.212909 
0.183482 0.187833 -3.212559 
0.183295 0.146516 -3.214935 
0.185048 -0.018497 -3.254493 
0.183132 0.121297 -3.214703 
0.183172 0.180298 -3.214414 
0.184846 -0.028703 -3.255330 
0.182816 0.130674 -3.216128 
0.182734 0.196700 -3.211859 
0.182747 0.134899 -3.215767 
0.182584 0.141191 -3.215675 
0.182548 0.135608 -3.216020 
0.182548 0.135608 -3.216020 
0.182222 0.005985 -3.216913 
0.182492 0.171082 -3.215743 
0.184209 -0.026846 -3.255657 
0.182459 0.252450 -3.211661 
0.182267 0.106251 -3.216574 
0.184061 -0.119317 -3.259455 
0.182200 0.154408 -3.216253 
0.181981 0.190923 -3.213777 
0.183687 -0.065418 -3.258009 
0.181468 0.107110 -3.217608 
0.181472 0.135200 -3.216906 
0.181342 0.158481 -3.216845 
0.180062 -0.358759 -3.213493 
0.181225 0.145075 -3.217208 
0.176074 -0.466827 -3.144747 
0.180895 0.001908 -3.218643 
0.182788 -0.096372 -3.259485 
0.180989 0.131565 -3.217420 
0.180868 0.114853 -3.216589 
0.180952 0.191927 -3.214732 
0.182742 -0.044565 -3.258259 
0.180960 0.161959 -3.217120 
0.182663 -0.064739 -3.258950 
0.182911 -0.035587 -3.264627 
0.180860 0.249453 -3.214049 
0.180732 0.150227 -3.217396 
0.180684 0.154430 -3.217333 
0.180340 0.006241 -3.218935 
0.180621 0.188004 -3.215519 
0.180614 0.152364 -3.217422 
0.180459 0.179521 -3.217306 
0.180274 0.194792 -3.214873 
0.182014 -0.035110 -3.258670 
0.181993 -0.093808 -3.261287 
0.181930 -0.089770 -3.260231 
0.181930 -0.089770 -3.260231 
0.180073 0.105044 -3.218691 
0.180206 0.185981 -3.216932 
0.179795 0.124804 -3.217017 
0.179849 0.148819 -3.218322 
0.179668 0.145380 -3.218743 
0.179668 0.145380 -3.218743 
0.179564 0.129946 -3.217711 
0.179611 0.250047 -3.215045 
0.179611 0.250047 -3.215045 
0.181277 -0.078311 -3.261444 
0.179410 0.151698 -3.218853 
0.179410 0.151698 -3.218853 
0.179385 0.172633 -3.218517 
0.181057 -0.038946 -3.259176 
0.179161 0.197332 -3.216232 
0.178871 -0.110542 -3.225924 
0.180858 -0.043412 -3.260300 
0.180858 -0.043412 -3.260300 
0.173751 -0.466754 -3.146187 
0.177630 -0.344019 -3.215411 
0.178834 0.199834 -3.216614 
0.178745 0.162918 -3.218944 
0.178745 0.162918 -3.218944 
0.178623 0.160416 -3.219035 
0.180354 -0.082403 -3.261813 
0.180245 -0.091698 -3.262535 
0.180245 -0.091698 -3.262535 
0.178369 0.185728 -3.218734 
0.180042 -0.120603 -3.263401 
0.178126 0.122991 -3.218522 
0.174643 -0.396614 -3.177656 
0.178149 0.259710 -3.216170 
0.179705 -0.053668 -3.261320 
0.177965 0.166146 -3.219682 
0.179590 -0.077876 -3.263054 
0.177768 0.137842 -3.220232 
0.177816 0.172292 -3.219578 
0.177758 0.150135 -3.219885 
0.177658 0.190806 -3.217987 
0.177526 0.101316 -3.221462 
0.177526 0.101316 -3.221462 
0.179325 -0.084038 -3.262808 
0.179307 -0.012938 -3.260112 
0.179307 -0.012938 -3.260112 
0.179287 -0.116824 -3.264558 
0.179146 -0.088824 -3.263109 
0.177373 0.184604 -3.220123 
0.179009 -0.118876 -3.264849 
0.177311 0.246876 -3.216372 
0.177181 0.145082 -3.220099 
0.172055 -0.469185 -3.146943 
0.177103 0.147629 -3.220728 
0.174143 -0.386255 -3.187770 
0.178731 -0.049855 -3.262686 
0.176806 0.208415 -3.216583 
0.171980 -0.459421 -3.152826 
0.178514 0.000096 -3.261016 
0.176715 0.149605 -3.221151 
0.175438 -0.360178 -3.216439 
0.176756 0.180027 -3.220593 
0.178374 -0.093334 -3.264532 
0.176523 0.172387 -3.220999 
0.176463 0.153298 -3.221324 
0.178130 -0.054653 -3.263362 
0.177915 -0.154929 -3.266522 
0.176156 0.141122 -3.221655 
0.176095 0.100842 -3.222814 
0.176095 0.100842 -3.222814 
0.176216 0.176135 -3.221221 
0.172389 -0.400487 -3.173468 
0.176090 0.163740 -3.221616 
0.175891 0.161460 -3.221663 
0.172875 -0.389414 -3.186160 
0.177536 0.020104 -3.261046 
0.177508 -0.048354 -3.263897 
0.171905 -0.404000 -3.171372 
0.175588 0.127855 -3.221375 
0.175729 0.190537 -3.220550 
0.177343 -0.056585 -3.264217 
0.177292 -0.009806 -3.262260 
0.177219 -0.082102 -3.265722 
0.175388 0.149337 -3.222153 
0.175388 0.149337 -3.222153 
0.175432 0.247791 -3.219083 
0.176789 0.018064 -3.261594 
0.176743 -0.051890 -3.264128 
0.176709 -0.054802 -3.264653 
0.176712 -0.096028 -3.266711 
0.176589 -0.016005 -3.263175 
0.176556 0.020717 -3.261764 
0.176529 -0.005475 -3.262690 
0.166706 -0.564583 -3.095477 
0.174554 0.129652 -3.221874 
0.174509 0.096904 -3.224298 
0.174509 0.096904 -3.224298 
0.174531 0.145503 -3.223125 
0.176061 -0.019392 -3.263875 
0.176035 0.023301 -3.262214 
0.176035 0.023301 -3.262214 
0.175988 -0.071505 -3.266328 
0.175947 -0.014313 -3.263825 
0.175921 -0.056820 -3.265200 
0.174171 0.180869 -3.223001 
0.170464 -0.399085 -3.177711 
0.172539 -0.344731 -3.217834 
0.175597 -0.004313 -3.263779 
0.175546 -0.008747 -3.263829 
0.175536 -0.079918 -3.267082 
0.175478 -0.022172 -3.264334 
0.173802 0.175066 -3.223897 
0.175449 0.026092 -3.262358 
0.175449 0.026092 -3.262358 
0.173685 0.152393 -3.223206 
0.175339 -0.055163 -3.265644 
0.173732 0.267985 -3.219222 
0.175185 -0.116830 -3.269376 
0.173445 0.206266 -3.221570 
0.173237 0.132342 -3.222958 
0.173324 0.155613 -3.224149 
0.173250 0.148487 -3.224145 
0.173198 0.145596 -3.223893 
0.174947 -0.058762 -3.266652 
0.174924 -0.024575 -3.265288 
0.173015 0.150601 -3.224409 
0.172944 0.113913 -3.225878 
0.172977 0.158106 -3.224088 
0.172977 0.158106 -3.224088 
0.174607 -0.003952 -3.264738 
0.174520 -0.122981 -3.270583 
0.174302 0.019972 -3.263546 
0.174316 -0.018740 -3.265554 
0.174307 -0.030706 -3.266024 
0.172600 0.179706 -3.224349 
0.174150 -0.049117 -3.266870 
0.168543 -0.441808 -3.172968 
0.163357 -0.584228 -3.076788 
0.172341 0.166727 -3.224641 
0.174031 -0.081719 -3.268850 
0.174003 -0.062999 -3.267795 
0.173956 -0.090769 -3.268891 
0.173954 -0.046260 -3.267152 
0.168270 -0.438633 -3.173401 
0.172168 0.193487 -3.224124 
0.170664 -0.349021 -3.217543 
0.172221 0.242012 -3.222868 
0.169987 -0.096470 -3.206383 
0.173406 -0.056484 -3.268107 
0.171572 0.169057 -3.225134 
0.173214 -0.079721 -3.269222 
0.171535 0.192107 -3.225103 
0.171419 0.186044 -3.225427 
0.172894 0.035544 -3.264340 
0.171089 0.134056 -3.225425 
0.171144 0.195784 -3.224251 
0.171139 0.160513 -3.226219 
0.172789 -0.062434 -3.268731 
0.172789 -0.062434 -3.268731 
0.172719 -0.083735 -3.269679 
0.171035 0.176000 -3.226053 
0.172673 -0.048235 -3.268661 
0.172622 0.020628 -3.264714 
0.172621 -0.028578 -3.267621 
0.170945 0.261048 -3.223056 
0.172410 -0.093019 -3.270487 
0.170748 0.177827 -3.226051 
0.169127 -0.360980 -3.218119 
0.170651 0.191146 -3.226003 
0.172190 -0.060544 -3.269239 
0.172028 0.038282 -3.264656 
0.171974 -0.050047 -3.269273 
0.171938 -0.066846 -3.270245 
0.170217 0.180168 -3.226719 
0.171798 -0.079662 -3.270430 
0.169976 0.202639 -3.224322 
0.171672 -0.022946 -3.268374 
0.169900 0.148154 -3.226110 
0.169900 0.148154 -3.226110 
0.169975 0.160977 -3.226815 
0.170039 0.192511 -3.226609 
0.170039 0.192511 -3.226609 
0.171609 -0.077597 -3.270671 
0.171481 -0.064655 -3.269539 
0.171450 -0.052993 -3.269628 
0.171382 0.036351 -3.265298 
0.169696 0.176295 -3.226952 
0.169539 0.139333 -3.226333 
0.169623 0.163237 -3.226925 
0.169645 0.184875 -3.226638 
0.169584 0.195427 -3.226424 
0.171188 -0.058797 -3.270080 
0.165596 -0.411506 -3.174403 
0.165596 -0.411506 -3.174403 
0.169433 0.166587 -3.226855 
0.171045 0.040837 -3.265616 
0.169333 0.152992 -3.227312 
0.164033 -0.468316 -3.151424 
0.169088 0.204893 -3.224608 
0.168935 0.210918 -3.225396 
0.168866 0.183272 -3.227356 
0.170474 -0.116303 -3.272875 
0.170460 -0.081502 -3.271808 
0.168843 0.189293 -3.227518 
0.167264 -0.358557 -3.219366 
0.170405 0.021458 -3.267725 
0.170361 -0.078918 -3.271700 
0.170357 -0.071143 -3.271373 
0.170312 -0.074586 -3.271463 
0.168640 0.180813 -3.227837 
0.168448 0.170415 -3.228061 
0.163303 -0.495831 -3.153031 
0.169938 -0.039622 -3.270437 
0.168011 0.150853 -3.227629 
0.168032 0.162291 -3.228265 
0.162869 -0.468517 -3.151613 
0.168082 0.261591 -3.224992 
0.167982 0.195443 -3.228042 
0.169538 -0.076390 -3.272324 
0.167830 0.159896 -3.228932 
0.169425 -0.067972 -3.272010 
0.167652 0.139323 -3.228285 
0.169387 -0.060124 -3.271647 
0.169387 -0.060124 -3.271647 
0.167775 0.177698 -3.228721 
0.169351 -0.064735 -3.272125 
0.167735 0.192813 -3.228330 
0.167623 0.158196 -3.228758 
0.169258 -0.072696 -3.272330 
0.167584 0.168668 -3.228925 
0.167573 0.189070 -3.228443 
0.167573 0.189070 -3.228443 
0.167573 0.189039 -3.228470 
0.167573 0.189039 -3.228470 
0.169161 -0.033596 -3.270715 
0.167532 0.173179 -3.228882 
0.167464 0.200704 -3.228347 
0.162274 -0.468367 -3.152995 
0.168893 0.045531 -3.267182 
0.168923 -0.117929 -3.275027 
0.163181 -0.441426 -3.176575 
0.159706 -0.549290 -3.110599 
0.165398 -0.361027 -3.219448 
0.168564 -0.045249 -3.271770 
0.166873 0.240552 -3.226701 
0.168374 -0.005495 -3.270390 
0.168218 -0.093024 -3.274236 
0.168207 -0.114784 -3.275309 
0.166523 0.274949 -3.223569 
0.166588 0.256507 -3.227009 
0.165029 -0.334852 -3.222563 
0.159076 -0.545695 -3.113130 
0.159076 -0.545695 -3.113130 
0.166193 0.166555 -3.230192 
0.166296 0.263579 -3.226234 
0.167766 -0.071571 -3.273601 
0.165980 0.145343 -3.229223 
0.167705 -0.019665 -3.272079 
0.167705 -0.019665 -3.272079 
0.162137 -0.409974 -3.176030 
0.162137 -0.409974 -3.176030 
0.166043 0.197766 -3.229361 
0.167526 0.048264 -3.267750 
0.167549 -0.063468 -3.273566 
0.167554 -0.044424 -3.273022 
0.167554 -0.044424 -3.273022 
0.165902 0.199955 -3.229595 
0.165812 0.172567 -3.230330 
0.167405 -0.078622 -3.274417 
0.165808 0.205120 -3.228760 
0.167266 -0.047350 -3.273145 
0.165507 0.175108 -3.230213 
0.165449 0.190212 -3.230484 
0.166989 -0.040195 -3.273395 
0.165209 0.153022 -3.229945 
0.165276 0.166923 -3.230971 
0.165293 0.186957 -3.230296 
0.166778 -0.090519 -3.275355 
0.165147 0.170397 -3.230978 
0.166750 -0.123461 -3.276693 
0.165131 0.170362 -3.230934 
0.165137 0.193381 -3.230762 
0.161133 -0.410693 -3.177175 
0.164952 0.159269 -3.231295 
0.164882 0.212829 -3.228497 
0.164907 0.202161 -3.229796 
0.159747 -0.464834 -3.156706 
0.166267 -0.035738 -3.274191 
0.166166 0.050452 -3.268570 
0.159469 -0.506237 -3.154762 
0.166069 -0.044025 -3.274245 
0.166083 -0.058374 -3.275167 
0.159187 -0.468157 -3.152859 
0.164177 0.171561 -3.231662 
0.157015 -0.547021 -3.113549 
0.163970 0.147371 -3.230596 
0.165574 0.015964 -3.271785 
0.163814 0.153177 -3.230409 
0.165532 -0.098039 -3.276963 
0.163791 0.149172 -3.230673 
0.163791 0.149172 -3.230673 
0.163974 0.263035 -3.228582 
0.163974 0.263035 -3.228582 
0.163865 0.198521 -3.231416 
0.165381 -0.064612 -3.275981 
0.165312 -0.071896 -3.275653 
0.163660 0.157701 -3.231639 
0.165319 -0.004033 -3.273288 
0.165302 -0.109120 -3.277940 
0.165242 -0.079301 -3.276513 
0.165209 -0.016522 -3.274013 
0.165209 -0.016522 -3.274013 
0.164842 0.095630 -3.261729 
0.165131 -0.086057 -3.276933 
0.165012 0.052263 -3.270004 
0.165007 -0.048148 -3.275150 
0.163427 0.177460 -3.232227 
0.163385 0.162239 -3.232883 
0.164940 -0.088097 -3.276632 
0.164880 0.054356 -3.269664 
0.163386 0.201736 -3.232086 
0.163250 0.184146 -3.232318 
0.164772 -0.044191 -3.275219 
0.164743 -0.007913 -3.273536 
0.164743 -0.007913 -3.273536 
0.164781 0.008090 -3.273647 
0.163032 0.165003 -3.232763 
0.157847 -0.469409 -3.154187 
0.161259 -0.358850 -3.221413 
0.162871 0.216116 -3.230186 
0.164384 -0.037835 -3.275294 
0.164384 -0.037835 -3.275294 
0.155400 -0.548480 -3.113020 
0.164096 -0.119100 -3.278965 
0.162552 0.282857 -3.231174 
0.163640 0.053980 -3.270707 
0.163640 0.053980 -3.270707 
0.161960 0.227702 -3.228270 
0.162097 0.256202 -3.230761 
0.162097 0.256202 -3.230761 
0.156964 -0.504790 -3.156921 
0.163460 -0.038079 -3.276200 
0.161936 0.198937 -3.233779 
0.156830 -0.468452 -3.156204 
0.159856 -0.179761 -3.213625 
0.163199 0.056338 -3.271051 
0.161589 0.174121 -3.234258 
0.163113 -0.089817 -3.278672 
0.163069 0.014864 -3.274680 
0.162994 -0.030738 -3.276535 
0.162924 -0.004608 -3.275004 
0.159577 -0.229476 -3.218632 
0.159577 -0.229476 -3.218632 
0.161294 0.183956 -3.234171 
0.159464 -0.245092 -3.218733 
0.161366 0.279006 -3.231700 
0.159299 -0.176201 -3.214577 
0.161136 0.265764 -3.230651 
0.155887 -0.505183 -3.157012 
0.156919 -0.407964 -3.178798 
0.162310 -0.092902 -3.279158 
0.160707 0.181171 -3.234704 
0.160634 0.169834 -3.235115 
0.160634 0.169834 -3.235115 
0.160627 0.193516 -3.234439 
0.160509 0.190243 -3.234294 
0.161592 0.107635 -3.261550 
0.160523 0.205014 -3.234185 
0.161987 -0.045138 -3.277610 
0.161950 -0.117606 -3.280805 
0.156432 -0.426293 -3.180289 
0.156411 -0.423480 -3.179952 
0.156411 -0.423480 -3.179952 
0.160230 0.198248 -3.234695 
0.160230 0.198248 -3.234695 
0.161700 -0.097631 -3.280222 
0.158532 -0.214005 -3.221361 
0.158532 -0.214005 -3.221361 
0.160301 0.275499 -3.232421 
0.160035 0.162175 -3.235415 
0.159974 0.171729 -3.235327 
0.156181 -0.401134 -3.184304 
0.155879 -0.408727 -3.179898 
0.161212 -0.011677 -3.277003 
0.161159 -0.077622 -3.279765 
0.159503 0.155060 -3.234244 
0.161162 -0.054266 -3.279176 
0.161148 -0.072282 -3.279717 
0.161122 -0.080337 -3.279872 
0.161046 -0.062114 -3.279455 
0.159534 0.191471 -3.235339 
0.159534 0.191471 -3.235339 
0.159467 0.164708 -3.235890 
0.157687 -0.362215 -3.223070 
0.157705 -0.352447 -3.223315 
0.159385 0.184249 -3.235705 
0.160815 0.056794 -3.273052 
0.160772 -0.119028 -3.281655 
0.155461 -0.402561 -3.184141 
0.160657 -0.050473 -3.279426 
0.159029 0.214719 -3.233597 
0.160518 -0.092705 -3.280961 
0.160308 -0.117205 -3.282096 
0.160157 -0.080312 -3.280860 
0.160156 -0.074533 -3.280626 
0.160142 -0.071481 -3.280518 
0.160132 -0.069088 -3.280467 
0.160101 -0.057582 -3.279796 
0.160101 -0.057582 -3.279796 
0.160105 -0.066838 -3.280407 
0.160095 -0.060867 -3.280158 
0.158548 0.193151 -3.235978 
0.158348 0.207799 -3.235399 
0.159698 -0.083082 -3.281268 
0.158078 0.164318 -3.236907 
0.157939 0.174731 -3.236933 
0.159440 -0.053697 -3.280504 
0.159440 -0.053697 -3.280504 
0.159397 -0.118825 -3.283024 
0.157953 0.204454 -3.236479 
0.157912 0.220477 -3.234608 
0.159394 -0.046816 -3.280105 
0.159356 -0.075994 -3.281250 
0.159363 -0.115619 -3.283143 
0.159237 0.058193 -3.274241 
0.155899 -0.250675 -3.220847 
0.158812 0.097148 -3.265991 
0.159096 -0.081153 -3.281521 
0.159097 0.030888 -3.277142 
0.159056 -0.078537 -3.281620 
0.157486 0.177925 -3.237238 
0.157398 0.180920 -3.237010 
0.157398 0.180920 -3.237010 
0.158883 -0.099126 -3.282434 
0.158883 -0.099126 -3.282434 
0.153538 -0.420414 -3.181403 
0.157460 0.260370 -3.234507 
0.157431 0.266167 -3.233976 
0.158789 -0.050550 -3.280959 
0.158765 -0.064892 -3.281383 
0.158649 -0.092565 -3.282612 
0.158573 -0.075170 -3.282055 
0.158446 -0.058729 -3.281090 
0.158435 -0.019438 -3.279952 
0.156943 0.283649 -3.234522 
0.158234 -0.068036 -3.282144 
0.158138 -0.047085 -3.281186 
0.154920 -0.345357 -3.225676 
0.158019 -0.118622 -3.284044 
0.158010 -0.054748 -3.281417 
0.156508 0.197280 -3.237267 
0.154699 -0.230068 -3.220860 
0.156429 0.183013 -3.238114 
0.156465 0.207367 -3.237837 
0.154778 -0.321221 -3.228252 
0.156324 0.194758 -3.237658 
0.156247 0.169929 -3.238694 
0.156032 0.177115 -3.238634 
0.157360 -0.095530 -3.284187 
0.157345 -0.074876 -3.283059 
0.157313 -0.078344 -3.282840 
0.157313 -0.078344 -3.282840 
0.154119 -0.348489 -3.225571 
0.155966 0.282901 -3.235604 
0.157198 -0.053520 -3.282906 
0.157107 -0.046677 -3.282023 
0.155661 0.199682 -3.238317 
0.155610 0.171651 -3.239405 
0.156920 -0.081069 -3.282888 
0.156943 -0.092487 -3.284176 
0.156850 -0.086921 -3.282839 
0.156902 -0.040134 -3.281837 
0.151710 -0.402806 -3.186466 
0.156800 -0.072135 -3.283458 
0.156800 -0.072135 -3.283458 
0.153449 -0.364019 -3.225542 
0.156673 -0.090019 -3.284699 
0.156593 -0.052099 -3.282470 
0.156483 0.061997 -3.275813 
0.155081 0.178951 -3.239691 
0.155081 0.178951 -3.239691 
0.156450 -0.055673 -3.282729 
0.156470 0.027084 -3.279402 
0.155005 0.203664 -3.239452 
0.154940 0.185670 -3.239944 
0.156360 -0.038869 -3.282265 
0.156267 -0.062278 -3.283251 
0.156247 -0.082963 -3.284392 
0.156169 -0.033050 -3.282070 
0.156097 -0.117007 -3.286117 
0.156030 -0.046215 -3.282901 
0.154616 0.212409 -3.238787 
0.154544 0.192078 -3.239572 
0.155953 -0.064237 -3.284002 
0.155868 0.060532 -3.276601 
0.151058 -0.396215 -3.193950 
0.155850 0.023440 -3.280325 
0.155774 0.057494 -3.276948 
0.154233 0.229359 -3.234655 
0.152403 -0.359514 -3.225149 
0.149195 -0.470871 -3.159323 
0.149263 -0.462913 -3.165646 
0.146974 -0.548996 -3.118108 
0.146974 -0.548996 -3.118108 
0.155392 -0.060522 -3.284413 
0.153904 0.220315 -3.237331 
0.155356 -0.037933 -3.283200 
0.151921 -0.176894 -3.217531 
0.155263 -0.092578 -3.285659 
0.153916 0.281642 -3.236713 
0.153730 0.187718 -3.240352 
0.149833 -0.427962 -3.183510 
0.148666 -0.472881 -3.159324 
0.153631 0.194903 -3.240262 
0.155034 -0.058561 -3.284157 
0.151634 -0.361089 -3.225711 
0.154822 0.040278 -3.279572 
0.151577 -0.353525 -3.225795 
0.151577 -0.353525 -3.225795 
0.151321 -0.361190 -3.226591 
0.153100 0.183780 -3.240862 
0.153020 0.190215 -3.240758 
0.149506 -0.400311 -3.190993 
0.149506 -0.400311 -3.190993 
0.153770 0.120367 -3.264411 
0.152772 0.186093 -3.240866 
0.154157 -0.117075 -3.287234 
0.154157 -0.100429 -3.286978 
0.154128 0.061463 -3.278414 
0.154122 -0.056692 -3.284514 
0.154161 0.023896 -3.281482 
0.154130 -0.068928 -3.285441 
0.148806 -0.429001 -3.184486 
0.148806 -0.429001 -3.184486 
0.153933 -0.051618 -3.284955 
0.152472 0.176846 -3.242173 
0.152552 0.285389 -3.237076 
0.153833 -0.071860 -3.285712 
0.153833 -0.071860 -3.285712 
0.153563 -0.058938 -3.284990 
0.153602 -0.021192 -3.284107 
0.153516 -0.074664 -3.286149 
0.153524 -0.025070 -3.284099 
0.152118 0.204010 -3.241332 
0.153466 -0.060124 -3.285260 
0.153466 -0.060124 -3.285260 
0.153392 -0.092335 -3.286780 
0.153380 -0.115011 -3.287832 
0.153374 -0.060739 -3.286349 
0.151954 0.210672 -3.241473 
0.147947 -0.430088 -3.184719 
0.153100 -0.068588 -3.286176 
0.153119 -0.083199 -3.287295 
0.151749 0.208570 -3.241641 
0.153018 -0.056706 -3.285570 
0.151646 0.192807 -3.242042 
0.146627 -0.497398 -3.162486 
0.152914 -0.086823 -3.286781 
0.152914 -0.086823 -3.286781 
0.151520 0.190368 -3.242102 
0.152902 0.028930 -3.282033 
0.151416 0.144935 -3.243572 
0.149591 -0.361308 -3.227185 
0.149591 -0.361308 -3.227185 
0.151445 0.212570 -3.241190 
0.151278 0.160659 -3.242293 
0.152522 -0.065369 -3.287046 
0.149220 -0.356735 -3.227148 
0.149220 -0.356735 -3.227148 
0.151071 0.200307 -3.242145 
0.152364 0.062262 -3.279355 
0.147141 -0.409941 -3.184446 
0.152329 -0.080288 -3.287355 
0.152310 -0.103702 -3.288135 
0.151769 0.117720 -3.267384 
0.152180 -0.095029 -3.287853 
0.152158 -0.074845 -3.287010 
0.151173 0.308124 -3.242842 
0.150786 0.197845 -3.242491 
0.148962 -0.354127 -3.228981 
0.148962 -0.354127 -3.228981 
0.148875 -0.364427 -3.228068 
0.148884 -0.354092 -3.228738 
0.148884 -0.354092 -3.228738 
0.151991 -0.067842 -3.286770 
0.145686 -0.505792 -3.163132 
0.151945 -0.058102 -3.286275 
0.151945 -0.058102 -3.286275 
0.150550 0.191999 -3.242465 
0.151777 -0.025282 -3.285446 
0.151687 0.064283 -3.279560 
0.150185 0.164859 -3.242476 
0.151566 -0.055857 -3.286512 
0.151424 -0.114978 -3.289735 
0.151342 -0.064761 -3.287230 
0.151331 -0.083042 -3.288267 
0.151334 -0.029566 -3.286042 
0.149900 0.257516 -3.240636 
0.149900 0.257516 -3.240636 
0.145918 -0.410478 -3.185119 
0.149793 0.202118 -3.243368 
0.149793 0.202118 -3.243368 
0.151000 -0.109356 -3.289471 
0.149507 0.166243 -3.243059 
0.149507 0.166243 -3.243059 
0.149637 0.213796 -3.243237 
0.150957 0.026743 -3.283956 
0.150906 -0.081162 -3.288900 
0.150843 -0.062241 -3.287793 
0.150830 -0.116830 -3.289964 
0.150791 0.062795 -3.280681 
0.150772 -0.074938 -3.288305 
0.150683 -0.068289 -3.288134 
0.145348 -0.445943 -3.184787 
0.149234 0.205583 -3.243561 
0.149234 0.205583 -3.243561 
0.149174 0.183210 -3.244475 
0.149149 0.178924 -3.244268 
0.150523 -0.037078 -3.287320 
0.149021 0.164719 -3.243455 
0.149021 0.164719 -3.243455 
0.148983 0.176662 -3.244348 
0.150367 -0.046911 -3.287721 
0.145340 -0.401669 -3.192837 
0.145024 -0.429322 -3.187154 
0.148819 0.194940 -3.244328 
0.148840 0.216120 -3.243430 
0.150124 -0.109992 -3.290675 
0.148649 0.201695 -3.244049 
0.148649 0.201695 -3.244049 
0.149931 0.064851 -3.280842 
0.149912 -0.072423 -3.288908 
0.149847 -0.054729 -3.288329 
0.149827 -0.059021 -3.288318 
0.148522 0.208871 -3.244064 
0.146596 -0.365780 -3.228941 
0.149818 0.023448 -3.285269 
0.149749 -0.063445 -3.288629 
0.148375 0.204394 -3.244164 
0.149678 -0.067221 -3.288733 
0.144515 -0.429948 -3.186848 
0.148406 0.254554 -3.242237 
0.149636 -0.023098 -3.287027 
0.149556 -0.095525 -3.290352 
0.144283 -0.444834 -3.186373 
0.144316 -0.432546 -3.187179 
0.141264 -0.548867 -3.122363 
0.149258 0.062911 -3.281717 
0.147927 0.180951 -3.245336 
0.147775 0.162796 -3.244855 
0.147896 0.216190 -3.243985 
0.149148 -0.116809 -3.291101 
0.145946 -0.357184 -3.229780 
0.149067 -0.060825 -3.289329 
0.143824 -0.409781 -3.186408 
0.147629 0.192737 -3.245252 
0.148918 -0.099185 -3.290748 
0.148923 -0.080982 -3.290248 
0.148657 0.100582 -3.275432 
0.148657 0.100582 -3.275432 
0.148884 -0.065312 -3.289437 
0.148868 -0.044301 -3.288791 
0.148868 -0.044301 -3.288791 
0.148812 -0.084587 -3.290600 
0.143584 -0.430706 -3.187271 
0.148702 0.022033 -3.285854 
0.148630 -0.090677 -3.290839 
0.148639 -0.023597 -3.288032 
0.148622 -0.035749 -3.288398 
0.147128 0.163746 -3.245058 
0.142652 -0.462832 -3.171082 
0.147361 0.282861 -3.242690 
0.148434 0.064548 -3.282273 
0.148471 -0.055816 -3.289691 
0.147145 0.266219 -3.242451 
0.148334 -0.029008 -3.288409 
0.148251 -0.041786 -3.288855 
0.138164 -0.602107 -3.079297 
0.148149 -0.053620 -3.289465 
0.146519 0.168882 -3.245173 
0.146519 0.168882 -3.245173 
0.146592 0.183580 -3.246362 
0.146607 0.211628 -3.245831 
0.146629 0.255519 -3.243393 
0.147801 -0.057409 -3.290224 
0.147801 -0.057409 -3.290224 
0.146433 0.220562 -3.244174 
0.147737 -0.081004 -3.291154 
0.147728 -0.066975 -3.290330 
0.147722 -0.075054 -3.290702 
0.147712 -0.078077 -3.290888 
0.147701 0.048068 -3.284320 
0.147701 0.048068 -3.284320 
0.147697 -0.069564 -3.290409 
0.147679 -0.071977 -3.290758 
0.147645 -0.060627 -3.290148 
0.146293 0.207358 -3.246107 
0.146183 0.193384 -3.246156 
0.147414 0.062326 -3.283333 
0.142295 -0.409604 -3.187512 
0.147417 -0.022303 -3.288754 
0.142261 -0.412936 -3.187301 
0.146104 0.200445 -3.246354 
0.146087 0.180146 -3.247400 
0.141119 -0.507243 -3.165646 
0.146011 0.274935 -3.242995 
0.145993 0.278941 -3.243441 
0.145841 0.191495 -3.246510 
0.143945 -0.338078 -3.232314 
0.142121 -0.403491 -3.192841 
0.146855 0.064033 -3.283063 
0.146840 0.060239 -3.284264 
0.146693 -0.052379 -3.290329 
0.145389 0.206489 -3.246757 
0.146677 -0.057950 -3.291573 
0.139162 -0.537549 -3.135796 
0.141583 -0.405566 -3.191847 
0.146497 -0.092506 -3.292360 
0.146497 -0.092506 -3.292360 
0.146179 0.110546 -3.274298 
0.146489 -0.058296 -3.290998 
0.146398 -0.114829 -3.292585 
0.146300 -0.046958 -3.290536 
0.138726 -0.539610 -3.134597 
0.146126 -0.048493 -3.290838 
0.144966 0.265399 -3.245600 
0.144966 0.265399 -3.245600 
0.140233 -0.463679 -3.171684 
0.144773 0.180904 -3.248145 
0.139858 -0.470876 -3.164825 
0.144791 0.214680 -3.247448 
0.144749 0.208102 -3.247045 
0.144779 0.251091 -3.245072 
0.144463 0.169453 -3.247203 
0.144513 0.190464 -3.247855 
0.144384 0.187842 -3.248233 
0.140494 -0.414726 -3.188456 
0.145558 -0.097150 -3.292913 
0.144319 0.212594 -3.247769 
0.145487 -0.051310 -3.291604 
0.145529 0.023379 -3.288726 
0.145529 0.023379 -3.288726 
0.145409 0.030137 -3.288414 
0.140278 -0.428188 -3.189123 
0.145303 -0.012957 -3.290051 
0.144037 0.209932 -3.247862 
0.145090 -0.033368 -3.290907 
0.137081 -0.550212 -3.123822 
0.143453 0.184150 -3.248897 
0.139522 -0.430544 -3.189887 
0.144561 -0.031531 -3.291411 
0.144407 -0.030621 -3.291768 
0.144379 0.025643 -3.288709 
0.144379 0.025643 -3.288709 
0.141110 -0.234668 -3.227226 
0.144294 0.060333 -3.286245 
0.144294 0.060333 -3.286245 
0.144208 -0.092528 -3.294424 
0.144208 -0.092528 -3.294424 
0.143014 0.283511 -3.245748 
0.143014 0.283511 -3.245748 
0.142795 0.207310 -3.249475 
0.142760 0.217290 -3.248434 
0.142763 0.276479 -3.245073 
0.143928 0.017768 -3.289881 
0.142688 0.213688 -3.249281 
0.143838 -0.050006 -3.292772 
0.143446 0.114770 -3.274770 
0.142467 0.182756 -3.249378 
0.142429 0.226057 -3.246895 
0.143647 -0.118244 -3.295862 
0.142360 0.181088 -3.250069 
0.136254 -0.536362 -3.138527 
0.143578 -0.013172 -3.291386 
0.142347 0.209668 -3.249241 
0.142322 0.195762 -3.249827 
0.143442 -0.035599 -3.292619 
0.142065 0.167207 -3.248963 
0.143383 -0.090715 -3.294564 
0.138350 -0.411056 -3.189449 
0.142054 0.170664 -3.249052 
0.143320 -0.067445 -3.293692 
0.142047 0.191952 -3.249798 
0.141862 0.213069 -3.249833 
0.141552 0.167666 -3.249726 
0.138094 -0.401249 -3.198341 
0.138094 -0.401249 -3.198341 
0.138094 -0.401249 -3.198341 
0.142702 0.013091 -3.290709 
0.139579 -0.358124 -3.233758 
0.141454 0.216217 -3.249336 
0.141345 0.153591 -3.253232 
0.142555 0.058948 -3.287612 
0.142521 0.061242 -3.287092 
0.141129 0.186380 -3.250645 
0.142369 -0.063928 -3.294418 
0.142369 -0.063928 -3.294418 
0.142348 -0.030304 -3.292702 
0.141211 0.285643 -3.246714 
0.142272 -0.039996 -3.293419 
0.142272 -0.039996 -3.293419 
0.142242 -0.048428 -3.293718 
0.139101 -0.255909 -3.230073 
0.140984 0.200659 -3.250842 
0.142114 -0.042129 -3.293921 
0.142114 -0.042129 -3.293921 
0.134279 -0.549911 -3.126432 
0.134279 -0.549911 -3.126432 
0.142012 -0.023555 -3.292621 
0.141997 -0.072391 -3.295005 
0.138829 -0.365808 -3.233517 
0.141949 -0.017419 -3.292952 
0.140615 0.242978 -3.246720 
0.140615 0.242978 -3.246720 
0.141829 -0.015982 -3.292787 
0.141829 -0.015982 -3.292787 
0.141743 -0.077367 -3.295253 
0.141551 -0.090617 -3.296180 
0.140276 0.163369 -3.251896 
0.141537 -0.066378 -3.295116 
0.141510 -0.104373 -3.296382 
0.141504 -0.085899 -3.295640 
0.141535 -0.075609 -3.296012 
0.141502 0.023514 -3.291583 
0.141413 0.012209 -3.291270 
0.141401 -0.082144 -3.295949 
0.140232 0.212915 -3.250771 
0.140134 0.180360 -3.251691 
0.140126 0.209120 -3.251143 
0.138239 -0.260272 -3.232613 
0.139942 0.169492 -3.251666 
0.141221 -0.013516 -3.293449 
0.140004 0.201895 -3.251342 
0.141232 0.017346 -3.291994 
0.139908 0.238646 -3.247289 
0.141154 -0.035503 -3.294026 
0.139925 0.182302 -3.252349 
0.137998 -0.355908 -3.233194 
0.139897 0.229179 -3.248604 
0.141062 -0.074828 -3.295741 
0.141062 -0.074828 -3.295741 
0.141039 0.019593 -3.292304 
0.139797 0.220253 -3.250345 
0.139688 0.187285 -3.252084 
0.140857 -0.089035 -3.296237 
0.137804 -0.329633 -3.235993 
0.140796 -0.043993 -3.294990 
0.140698 -0.116625 -3.297889 
0.140507 -0.018809 -3.293266 
0.139447 0.276335 -3.249522 
0.140482 0.007340 -3.293045 
0.139161 0.241087 -3.247872 
0.134202 -0.498872 -3.169206 
0.138931 0.194819 -3.252453 
0.137141 -0.305511 -3.237271 
0.138848 0.204730 -3.252211 
0.138997 0.291700 -3.249148 
0.135070 -0.432495 -3.192524 
0.136992 -0.338486 -3.236689 
0.139939 -0.092296 -3.297354 
0.139935 -0.125226 -3.298790 
0.138753 0.190563 -3.252699 
0.138733 0.184799 -3.253251 
0.138687 0.181172 -3.253197 
0.139797 -0.102332 -3.297790 
0.139828 0.004347 -3.293886 
0.138692 0.267325 -3.249857 
0.138701 0.278655 -3.249301 
0.139738 -0.040760 -3.295216 
0.139738 -0.040760 -3.295216 
0.138484 0.207897 -3.252476 
0.139618 -0.045204 -3.295691 
0.139552 -0.075224 -3.296678 
0.138437 0.217231 -3.252324 
0.139568 0.051519 -3.290517 
0.139423 -0.090038 -3.297592 
0.139377 -0.086526 -3.297473 
0.139396 -0.057144 -3.296452 
0.139362 0.013317 -3.293017 
0.139286 -0.022389 -3.294348 
0.139317 0.005823 -3.293736 
0.139317 0.005823 -3.293736 
0.139268 -0.017887 -3.294914 
0.139118 -0.062753 -3.296862 
0.139078 -0.078595 -3.297056 
0.137829 0.174309 -3.252561 
0.137829 0.174309 -3.252561 
0.137889 0.200047 -3.253130 
0.137889 0.200047 -3.253130 
0.139022 -0.113576 -3.299036 
0.138997 0.055203 -3.290412 
0.137699 0.190927 -3.252937 
0.138827 -0.103910 -3.298741 
0.137650 0.214394 -3.253525 
0.138672 -0.097280 -3.298572 
0.132754 -0.471808 -3.169469 
0.137395 0.230169 -3.250826 
0.137441 0.221938 -3.252980 
0.133562 -0.411531 -3.192220 
0.137281 0.186263 -3.253948 
0.137240 0.197174 -3.253378 
0.138431 -0.021420 -3.295881 
0.138396 0.029960 -3.293412 
0.136938 0.177510 -3.252460 
0.137052 0.207621 -3.253326 
0.137076 0.213050 -3.253740 
0.138183 0.044545 -3.292111 
0.138151 -0.066091 -3.297712 
0.136955 0.192571 -3.254386 
0.136955 0.192571 -3.254386 
0.136955 0.192571 -3.254386 
0.138074 -0.058528 -3.297147 
0.138058 -0.081428 -3.298461 
0.136924 0.211341 -3.253655 
0.133083 -0.416678 -3.192760 
0.137817 0.099384 -3.284116 
0.137915 -0.118164 -3.300510 
0.137746 -0.068965 -3.297816 
0.137796 0.011176 -3.294688 
0.136497 0.170527 -3.254404 
0.136533 0.220052 -3.254317 
0.136469 0.199567 -3.254429 
0.136357 0.197530 -3.254743 
0.136362 0.206018 -3.254510 
0.134549 -0.279946 -3.238367 
0.134516 -0.241980 -3.236686 
0.136539 0.298533 -3.252702 
0.137382 0.048783 -3.292335 
0.137341 -0.072027 -3.298469 
0.137341 -0.072027 -3.298469 
0.136123 0.210074 -3.254458 
0.137163 -0.079568 -3.298949 
0.136070 0.208212 -3.254791 
0.135904 0.170874 -3.254750 
0.137094 0.052937 -3.292276 
0.135885 0.193323 -3.254611 
0.136978 -0.039385 -3.297615 
0.135826 0.202338 -3.254785 
0.136917 -0.023552 -3.296272 
0.129240 -0.550825 -3.129114 
0.136808 -0.064239 -3.298422 
0.136790 -0.021531 -3.296259 
0.136776 -0.083369 -3.299457 
0.136819 0.030547 -3.294870 
0.136819 0.030547 -3.294870 
0.136772 -0.022079 -3.297163 
0.136772 -0.022079 -3.297163 
0.136733 -0.043680 -3.297790 
0.135596 0.192213 -3.255368 
0.136656 -0.108655 -3.300263 
0.136656 -0.108655 -3.300263 
0.136639 -0.117983 -3.301402 
0.130720 -0.471860 -3.169887 
0.136510 -0.056981 -3.298079 
0.136542 0.002591 -3.296681 
0.136308 0.100277 -3.285262 
0.135309 0.214114 -3.254446 
0.136350 -0.061659 -3.298790 
0.131463 -0.409943 -3.193844 
0.136168 -0.113131 -3.300475 
0.135053 0.200133 -3.255682 
0.136176 0.017817 -3.295550 
0.136176 0.017817 -3.295550 
0.128526 -0.552807 -3.128499 
0.133039 -0.358938 -3.236048 
0.136054 -0.092361 -3.300243 
0.135964 -0.069676 -3.299337 
0.135995 0.008896 -3.296123 
0.134759 0.152006 -3.257247 
0.135922 -0.073259 -3.299523 
0.135882 -0.076655 -3.299546 
0.135901 -0.021197 -3.297425 
0.134795 0.210443 -3.255868 
0.135815 -0.045374 -3.298397 
0.135710 -0.079430 -3.299989 
0.135710 -0.079430 -3.299989 
0.135714 0.004545 -3.296701 
0.134580 0.215268 -3.255506 
0.132465 -0.206120 -3.228732 
0.134554 0.203738 -3.255951 
0.135657 0.045877 -3.293805 
0.135614 -0.033901 -3.297941 
0.135522 -0.054812 -3.299196 
0.135359 -0.153368 -3.302125 
0.135359 -0.153368 -3.302125 
0.135381 -0.089991 -3.300584 
0.135364 -0.025922 -3.297926 
0.135364 -0.025922 -3.297926 
0.135343 -0.081401 -3.300419 
0.134234 0.187392 -3.256611 
0.135377 0.007380 -3.296947 
0.132263 -0.367900 -3.236765 
0.134136 0.179841 -3.255620 
0.134136 0.179841 -3.255620 
0.135366 0.052862 -3.294421 
0.134221 0.280477 -3.253179 
0.134977 -0.086110 -3.300605 
0.133881 0.190777 -3.256717 
0.130153 -0.417871 -3.195114 
0.130211 -0.406718 -3.196887 
0.133840 0.201940 -3.256524 
0.133840 0.201940 -3.256524 
0.130053 -0.408713 -3.195129 
0.130053 -0.408713 -3.195129 
0.131813 -0.356755 -3.237203 
0.131813 -0.356755 -3.237203 
0.134766 -0.074490 -3.300455 
0.134762 -0.064876 -3.299906 
0.134722 -0.104037 -3.301549 
0.133658 0.205944 -3.256715 
0.129817 -0.414276 -3.194511 
0.133382 0.198515 -3.257414 
0.134424 -0.051780 -3.299678 
0.133839 0.138852 -3.274512 
0.134379 -0.054378 -3.299864 
0.133224 0.195985 -3.256640 
0.134319 -0.037306 -3.299549 
0.134236 -0.116444 -3.302004 
0.134270 0.048304 -3.294779 
0.133824 0.122742 -3.280811 
0.132853 0.160722 -3.258150 
0.132764 0.177809 -3.256567 
0.132800 0.201707 -3.257188 
0.133812 -0.089136 -3.301745 
0.126308 -0.551707 -3.130696 
0.133313 0.124163 -3.280981 
0.133313 0.124163 -3.280981 
0.133280 0.112931 -3.284284 
0.130447 -0.359294 -3.237448 
0.133384 -0.120924 -3.301499 
0.133451 -0.055146 -3.300566 
0.133451 -0.055146 -3.300566 
0.133441 -0.059805 -3.300751 
0.133441 -0.059805 -3.300751 
0.132368 0.210206 -3.257424 
0.133398 -0.065432 -3.301124 
0.132327 0.196222 -3.258262 
0.132196 0.180931 -3.256933 
0.133324 -0.062645 -3.300623 
0.133340 0.046387 -3.295538 
0.133359 0.034051 -3.297080 
0.133359 0.034051 -3.297080 
0.128258 -0.415063 -3.195589 
0.132095 0.300735 -3.252920 
0.133033 -0.031717 -3.299856 
0.133022 -0.037384 -3.300498 
0.131893 0.187253 -3.258291 
0.128204 -0.417260 -3.196117 
0.128204 -0.417260 -3.196117 
0.132717 0.100186 -3.287604 
0.131728 0.159839 -3.259344 
0.132518 0.120407 -3.282329 
0.131595 0.168135 -3.258760 
0.132688 -0.094716 -3.302582 
0.131578 0.151039 -3.260483 
0.132402 0.097699 -3.288404 
0.131394 0.180216 -3.257884 
0.132500 -0.092363 -3.302932 
0.131407 0.212301 -3.258481 
0.132430 0.020574 -3.298581 
0.132302 -0.063914 -3.301925 
0.132279 -0.114716 -3.304266 
0.129337 -0.330934 -3.241073 
0.132173 -0.118118 -3.303902 
0.127304 -0.425623 -3.197073 
0.132009 -0.032314 -3.301021 
0.131988 -0.044237 -3.301620 
0.126263 -0.509871 -3.174267 
0.131975 0.033495 -3.297637 
0.131975 0.033495 -3.297637 
0.130917 0.210539 -3.259121 
0.131850 -0.035225 -3.300495 
0.130822 0.216679 -3.258884 
0.130691 0.172037 -3.259617 
0.131799 0.005769 -3.299264 
0.131679 -0.058276 -3.301762 
0.130457 0.176797 -3.258701 
0.131557 -0.045837 -3.301537 
0.130359 0.193779 -3.259487 
0.131276 0.093903 -3.290352 
0.130327 0.221716 -3.258731 
0.131259 -0.090294 -3.303571 
0.131228 -0.116482 -3.304344 
0.131228 -0.116482 -3.304344 
0.130137 0.173699 -3.259566 
0.130234 0.214221 -3.259584 
0.131130 -0.058533 -3.302503 
0.131130 -0.058533 -3.302503 
0.131123 -0.081570 -3.303573 
0.129992 0.189211 -3.260259 
0.131024 -0.029534 -3.301513 
0.131023 0.013064 -3.300190 
0.130917 0.044471 -3.297698 
0.129828 0.192751 -3.259967 
0.130628 0.104544 -3.287634 
0.129743 0.161524 -3.261372 
0.130802 -0.032890 -3.301412 
0.130792 -0.024363 -3.301581 
0.129775 0.212267 -3.259751 
0.129691 0.197483 -3.260079 
0.129648 0.203441 -3.260139 
0.130692 0.028630 -3.298936 
0.129629 0.209600 -3.259901 
0.130601 -0.061768 -3.302955 
0.130553 -0.077448 -3.303415 
0.130379 -0.050023 -3.302323 
0.130277 -0.085608 -3.304078 
0.130277 -0.085608 -3.304078 
0.130257 0.039322 -3.298843 
0.130168 0.006022 -3.300541 
0.129134 0.200427 -3.260869 
0.130085 -0.042882 -3.302536 
0.130085 -0.042882 -3.302536 
0.130006 -0.116363 -3.305556 
0.128898 0.179001 -3.259756 
0.129963 0.034512 -3.299508 
0.128939 0.219893 -3.261360 
0.128643 0.191145 -3.261115 
0.128643 0.191145 -3.261115 
0.128668 0.216508 -3.260425 
0.129667 0.023340 -3.300052 
0.129656 0.045518 -3.298597 
0.126819 -0.268907 -3.242186 
0.128512 0.193495 -3.261204 
0.129482 0.037089 -3.299125 
0.128352 0.171366 -3.261344 
0.129293 -0.059646 -3.303767 
0.129276 -0.054475 -3.303553 
0.129220 -0.057181 -3.303393 
0.126164 -0.359325 -3.239566 
0.129151 -0.120989 -3.307322 
0.128104 0.188656 -3.261533 
0.129029 -0.090572 -3.305155 
0.127986 0.154982 -3.262864 
0.128563 0.138243 -3.279313 
0.128100 0.261460 -3.259974 
0.128847 -0.094745 -3.305644 
0.128900 0.025499 -3.300355 
0.127826 0.222130 -3.260835 
0.125777 -0.367300 -3.240031 
0.128443 0.107419 -3.287754 
0.128443 0.107419 -3.287754 
0.128647 0.017994 -3.300967 
0.127626 0.215047 -3.261374 
0.127266 0.194767 -3.261956 
0.128197 -0.079552 -3.304837 
0.128183 0.021015 -3.301310 
0.127085 0.174707 -3.262837 
0.128141 0.000202 -3.302592 
0.127866 -0.054970 -3.304432 
0.126932 0.213611 -3.261970 
0.127820 -0.077488 -3.305673 
0.127874 0.009038 -3.302168 
0.127844 0.032309 -3.300762 
0.125007 -0.285654 -3.243668 
0.127680 -0.047308 -3.304104 
0.127750 0.016226 -3.302142 
0.127622 -0.092552 -3.306213 
0.122729 -0.453997 -3.192744 
0.127576 -0.116570 -3.307353 
0.127576 -0.116570 -3.307353 
0.127612 0.002178 -3.302438 
0.122914 -0.420268 -3.198986 
0.127561 0.040337 -3.300404 
0.126536 0.220525 -3.262107 
0.120345 -0.549234 -3.136527 
0.126530 0.307884 -3.257584 
0.126530 0.307884 -3.257584 
0.127335 0.029530 -3.301266 
0.124235 -0.359726 -3.241081 
0.126203 0.232855 -3.260806 
0.126186 0.205727 -3.262694 
0.126052 0.190892 -3.262467 
0.126098 0.208621 -3.262888 
0.126973 -0.090481 -3.306589 
0.126973 -0.090481 -3.306589 
0.127033 0.018055 -3.302301 
0.125997 0.223684 -3.261761 
0.126971 0.026995 -3.301661 
0.125892 0.187844 -3.263287 
0.126913 0.007707 -3.302966 
0.126741 0.095696 -3.292853 
0.126156 0.343581 -3.258030 
0.126778 -0.081773 -3.306550 
0.126732 -0.043494 -3.304765 
0.126568 -0.079490 -3.306346 
0.126515 0.002581 -3.303118 
0.126515 0.002581 -3.303118 
0.123596 -0.339926 -3.243738 
0.126313 -0.055284 -3.305519 
0.126163 -0.052424 -3.305481 
0.126054 -0.108417 -3.307883 
0.125152 0.220688 -3.263257 
0.126035 -0.048586 -3.305576 
0.125032 0.193249 -3.264138 
0.125875 -0.085590 -3.306886 
0.124958 0.202658 -3.263781 
0.121300 -0.421900 -3.199768 
0.121300 -0.421900 -3.199768 
0.121225 -0.419879 -3.199143 
0.124898 0.195564 -3.264634 
0.124896 0.207166 -3.263721 
0.124896 0.207166 -3.263721 
0.125856 0.014000 -3.303434 
0.120303 -0.473237 -3.176781 
0.120303 -0.473237 -3.176781 
0.124746 0.200588 -3.264084 
0.124626 0.184003 -3.263079 
0.121034 -0.429370 -3.200149 
0.120078 -0.507567 -3.178013 
0.120078 -0.507567 -3.178013 
0.125487 -0.118148 -3.309079 
0.124551 0.187235 -3.264448 
0.124609 0.218048 -3.263852 
0.125512 0.007678 -3.303706 
0.125509 0.010787 -3.303726 
0.125419 0.004203 -3.303961 
0.125328 -0.053804 -3.306450 
0.120761 -0.425903 -3.200454 
0.119830 -0.471804 -3.176769 
0.125358 0.032390 -3.302593 
0.125087 0.110663 -3.290314 
0.124324 0.216233 -3.264531 
0.124180 0.191728 -3.264629 
0.124886 -0.095254 -3.308275 
0.119388 -0.475367 -3.176821 
0.123880 0.189592 -3.265173 
0.123897 0.209710 -3.264067 
0.124764 -0.090664 -3.308079 
0.124822 0.021023 -3.303540 
0.124822 0.021023 -3.303540 
0.124668 -0.114809 -3.309253 
0.123655 0.176362 -3.264291 
0.123753 0.203027 -3.264870 
0.123657 0.160634 -3.265993 
0.123745 0.224983 -3.263649 
0.124608 -0.055724 -3.306878 
0.124639 0.017745 -3.303817 
0.119060 -0.510064 -3.178723 
0.123430 0.175504 -3.264871 
0.119935 -0.409524 -3.201999 
0.124436 0.007842 -3.304672 
0.124416 0.028491 -3.303253 
0.124412 0.010945 -3.304466 
0.123423 0.195509 -3.264937 
0.123423 0.195509 -3.264937 
0.123370 0.205622 -3.264917 
0.124264 0.005184 -3.304697 
0.123191 0.229873 -3.263102 
0.123106 0.156768 -3.266959 
0.123095 0.221167 -3.264513 
0.118457 -0.113115 -3.164885 
0.122941 0.186192 -3.265582 
0.123673 -0.088522 -3.309094 
0.118300 -0.508480 -3.179389 
0.118219 -0.493134 -3.178845 
0.122463 0.163981 -3.266765 
0.120738 -0.289023 -3.246860 
0.122529 0.201791 -3.265833 
0.123444 0.021159 -3.304498 
0.118022 -0.509350 -3.179534 
0.123334 -0.083272 -3.308537 
0.123334 -0.083272 -3.308537 
0.123342 -0.075533 -3.308461 
0.122480 0.204217 -3.265858 
0.122312 0.178150 -3.265771 
0.123191 -0.026216 -3.306466 
0.122403 0.324004 -3.262132 
0.123028 0.009596 -3.305137 
0.122050 0.210497 -3.266038 
0.121917 0.190437 -3.265692 
0.122007 0.219043 -3.265959 
0.117439 -0.494721 -3.179360 
0.117439 -0.494721 -3.179360 
0.117367 -0.473546 -3.178482 
0.117331 -0.491661 -3.179490 
0.117331 -0.491661 -3.179490 
0.122230 0.228766 -3.276077 
0.119608 -0.352083 -3.244293 
0.122407 -0.079667 -3.309040 
0.121563 0.281164 -3.263324 
0.121563 0.281164 -3.263324 
0.122259 -0.090296 -3.309827 
0.117809 -0.428627 -3.202857 
